ply
format ascii 1.0
comment Created by Open3D
element vertex 682
property double x
property double y
property double z
property double nx
property double ny
property double nz
property uchar red
property uchar green
property uchar blue
end_header
-0.00390649 0.00200359 0.0012328 0.0509599 -0.143054 0.988402 255 0 0
-0.00397313 0.0020031 0.00123696 0.0576576 -0.143496 0.98797 255 0 0
-0.0041069 0.00200216 0.00124408 0.0786443 -0.146116 0.986136 255 0 0
-0.0026945 -0.0032017 0.000430805 0.358294 -0.362495 0.860362 0 0 255
-0.00430316 0.00200045 0.00126569 0.168917 -0.144214 0.975023 255 0 0
-0.00467496 0.0019957 0.00136053 0.411924 0.00711887 0.91119 255 0 0
0.0043429 0.0052305 0.00132998 0.716995 -0.663543 -0.213608 0 0 255
0.00119058 0.00475136 0.00109814 -0.110552 0.0312953 0.993378 255 0 0
-0.00193277 0.0030382 0.00106477 0.523278 -0.565672 0.637334 255 0 0
-0.00500931 0.00198374 0.00171867 0.802369 0.200836 0.562023 255 0 0
0.000127459 0.00293199 0.000598279 -0.55813 -0.260645 0.787753 255 0 0
-0.00139568 0.00184313 0.000672663 0.193501 -0.0662906 0.978858 255 0 0
0.000488977 0.00197276 0.000948103 -0.506894 -0.10478 0.855617 255 0 0
0.00439162 0.00387399 0.000422767 -0.25007 -0.231469 0.940153 255 0 0
-0.00112847 0.00241521 0.000681612 0.16091 0.0850363 0.983299 255 0 0
0.000276078 0.00197692 0.000758207 0.894943 -0.372678 -0.245333 255 0 0
-0.0062449 -0.0051037 -0.000363344 0.0120406 -0.00259113 0.999924 0 0 255
4.79778e-05 0.00198206 0.000530463 -0.619703 0.428689 0.657414 255 0 0
0.0027579 0.0060547 0.00109625 0.145251 0.145432 0.978648 0 0 255
0.00418728 0.00331672 0.000209473 0.184888 -0.101783 0.977475 255 0 0
-0.0087175 -0.0074495 -0.000544805 0.838766 -0.360493 -0.408065 0 0 255
-0.000229688 0.00198561 0.000349398 0.101986 0.255435 0.961432 255 0 0
-0.000619029 0.00198199 0.00040055 0.351664 -0.0621273 0.934062 255 0 0
-0.00431932 0.00312466 0.0012088 0.141627 -0.110316 0.983754 255 0 0
-0.000349808 0.0035693 0.000755789 0.393373 -0.2154 0.89379 128 0 128
-0.00137911 0.00198345 0.000678468 0.325737 -0.17306 0.929487 128 0 128
0.00862595 0.00492354 -0.000350202 0.374829 0.0260968 0.926727 255 0 0
-0.00157919 0.00196731 0.000731369 0.305053 -0.176717 0.935796 255 0 0
0.0005389 0.0045331 0.000541017 0.317968 -0.1335 0.938655 0 0 255
-0.0005389 -0.0012363 0.00103296 0.510446 -0.315897 -0.799784 0 0 255
-0.00176151 0.0019647 0.000787687 0.239977 -0.0928989 0.966323 255 0 0
-0.00104013 0.00298925 0.000585387 -0.093334 -0.0365726 0.994963 255 0 0
-0.00182164 0.00196379 0.000808058 0.137915 0.000261536 0.990444 255 0 0
-0.00188201 0.0019629 0.000827851 0.0769501 0.0914478 0.992832 255 0 0
-0.0023775 -0.0024409 0.000690191 0.232079 -0.192202 0.953518 0 0 255
0.00763713 0.00391834 -0.000293927 0.362633 -0.431457 0.82604 255 0 0
-0.00225347 0.00195812 0.000923499 0.178468 0.265926 0.947329 255 0 0
-0.0025644 0.00195424 0.000999806 0.248857 0.249475 0.935859 255 0 0
-0.000317416 0.00558191 0.00095665 0.33144 -0.0531739 0.941977 255 0 0
-0.00254998 0.00289399 0.00141589 0.532899 -0.682638 0.500024 255 0 0
0.0044697 0.0074495 0.00202222 0.218339 0.125973 -0.967708 0 0 255
-0.00486078 0.00293302 0.00150024 0.518106 0.0113174 0.855242 255 0 0
-0.0019337 -0.0016801 0.00086608 0.0050738 -0.128595 0.991684 0 0 255
-0.0025281 0.00535847 0.00174449 0.754495 0.371085 0.541326 255 0 0
-0.0027579 -0.0034553 0.00032185 0.1733 -0.338082 0.925023 0 0 255
-0.00305734 0.00194772 0.0011332 0.283093 0.122146 0.951283 255 0 0
-0.0051037 -0.0027579 -1.09606e-05 0.361928 -0.409426 0.837483 0 0 255
-0.00264311 0.00208123 0.000979243 0.283583 0.0215244 0.958706 255 0 0
-0.000321764 0.00217682 0.00029824 0.344947 -0.0897212 0.934324 255 0 0
-0.0001585 0.0038357 0.000738807 0.314978 -0.153688 0.936573 0 0 255
-0.0049135 -0.0062449 -0.000556285 -0.162329 -0.316601 0.934566 0 0 255
-0.00311996 0.00194697 0.00114736 0.280149 0.124638 0.951831 255 0 0
-0.00306695 0.0047656 0.0024199 -0.126999 0.071908 0.989293 255 0 0
-0.00330884 0.00194479 0.00118735 0.247219 0.0576368 0.967244 255 0 0
-0.00357335 0.0019427 0.00120915 -0.0168831 -0.0911118 0.995698 255 0 0
0.00778249 0.00413637 -0.000311872 0.659406 -0.153948 0.735856 255 0 0
-0.00404314 0.00193948 0.00123007 0.0626356 -0.142146 0.987862 255 0 0
0.0011095 0.0033285 0.001043 0.167199 0.500207 0.84961 0 0 255
-0.00334849 0.00458836 0.00231805 -0.457974 -0.0225118 0.88868 255 0 0
-0.00125819 0.00283132 0.00052601 0.186306 -0.187609 0.964413 255 0 0
-0.0075129 -0.0063083 -0.000401962 0.676584 -0.448349 -0.584139 0 0 255
-0.00472942 0.00193107 0.00139236 0.543574 0.106465 0.832582 255 0 0
-0.00209656 0.00142113 0.00107204 0.159064 0.600445 0.783687 255 0 0
-0.0084639 -0.0051671 -0.00052613 0.23284 -0.298972 0.925419 0 0 255
-0.00520514 0.00190907 0.00207888 -0.596122 -0.292487 -0.747723 255 0 0
-0.00316241 0.000595384 0.00183609 0.135503 0.485076 0.86391 255 0 0
0.0006023 0.0007925 0.000920635 0.136877 -0.0435631 0.98963 0 0 255
0.000396352 0.0019106 0.000884906 -0.545128 0.0573778 0.836387 255 0 0
0.000693517 0.0056435 0.0012719 -0.172426 -0.449763 0.876346 255 0 0
-9.51e-05 -0.0003487 0.000943676 -0.32454 0.215486 0.920999 0 0 255
-3.46529e-05 0.00191926 0.00049215 -0.506572 0.499965 0.702439 255 0 0
-0.000213939 0.00192124 0.000385942 -0.0670297 0.400094 0.91402 255 0 0
-0.000555212 0.00191932 0.000386685 0.311225 0.11734 0.943064 255 0 0
-0.00516594 0.00191133 0.00200637 -0.621854 -0.316677 -0.716249 255 0 0
-0.000617955 0.00191857 0.000400557 0.308255 0.0841439 0.947575 255 0 0
-0.0060547 -0.0048501 -0.000388287 0.00941538 0.0234878 0.99968 0 0 255
-0.000875329 0.0046085 0.000771693 0.194832 -0.165014 0.966856 255 0 0
0.00507827 0.0037619 0.000271613 0.593355 -0.118267 0.796205 255 0 0
-0.0034553 -0.0024409 0.000505314 -0.259648 -0.187916 0.947244 0 0 255
-0.000915349 0.00191381 0.000510548 0.283086 0.0113488 0.959027 255 0 0
-0.00133529 0.00190738 0.000655587 0.181662 -0.0863082 0.979566 255 0 0
-0.00164065 0.00190313 0.000745764 0.284501 -0.13187 0.949563 255 0 0
-0.001702 0.0019023 0.000763101 0.290851 -0.0944285 0.952097 255 0 0
0.00242726 0.00470591 0.00112626 0.185211 -0.0443795 0.981696 255 0 0
-0.00324971 0.00188241 0.00116183 0.290428 0.0350949 0.956253 255 0 0
-0.0037089 -0.0032017 0.00059548 -0.135142 -0.123986 0.983038 0 0 255
-0.00337779 0.0018811 0.00118312 0.119319 -0.0384723 0.99211 255 0 0
-0.00351143 0.00188014 0.00119055 -0.0342653 -0.0607633 0.997564 255 0 0
-0.00410702 0.00465811 0.0015259 -0.494027 -0.128446 0.859906 255 0 0
0.0011095 0.0036455 0.000895899 0.175236 0.093425 0.980084 0 0 255
-0.00431116 0.00187426 0.00124045 0.201031 -0.103148 0.974139 255 0 0
-0.00424207 0.00327311 0.00113097 0.0187375 -0.328265 0.9444 255 0 0
-0.00224213 0.00479002 0.00201447 0.560798 0.486071 0.670254 255 0 0
-0.00437347 0.00187349 0.0012554 0.249745 -0.0777129 0.965188 255 0 0
-0.0025043 -0.0014265 0.000855999 -0.154567 -0.119818 0.98069 0 0 255
-0.00282794 0.00534429 0.00218856 0.346342 0.654479 0.672089 255 0 0
-0.00477853 0.0018661 0.00143749 0.637651 0.209585 0.741266 255 0 0
0.0011095 0.0025677 0.000957654 -0.0566907 -0.203474 0.977438 0 0 255
-0.00482741 0.00186446 0.00148589 0.705781 0.247711 0.663711 255 0 0
-0.000848664 0.0067146 0.00121948 0.190859 -0.304509 0.933192 255 0 0
-0.00491247 0.00186037 0.00161428 0.791841 0.293982 0.535316 255 0 0
-0.00495221 0.00185814 0.00168543 0.808096 0.297818 0.508218 255 0 0
0.0004755 0.0018703 0.00097037 -0.343273 -0.000739969 0.939235 0 0 255
-0.000709218 0.00444413 0.000790295 -0.167192 -0.187225 0.967984 255 0 0
-0.00511612 0.00184956 0.00195767 0.683953 0.336663 0.647199 255 0 0
-0.00515683 0.00184739 0.00202639 0.584973 0.364376 0.724594 255 0 0
-0.00284323 0.00356665 0.00224588 0.188377 -0.444452 0.875772 255 0 0
0.000302174 0.00184854 0.000817844 0.821117 -0.247826 -0.514149 255 0 0
-0.000905154 0.00210321 0.000543933 0.344762 -0.240072 0.907471 255 0 0
-0.00445413 0.00364793 0.00129192 0.179277 -0.155793 0.971385 255 0 0
0.00313775 0.00331407 0.000470651 0.20219 -0.361541 0.910169 255 0 0
-0.000735141 0.0018532 0.000446296 0.338561 0.155179 0.92806 255 0 0
-0.00377844 0.00582062 0.00176681 0.1867 -0.507729 0.841043 255 0 0
-0.00127402 0.00184486 0.000635386 0.123229 0.0794081 0.989196 255 0 0
0.0030749 0.0070057 0.00134846 -0.422087 0.199394 0.884355 0 0 255
0.0065253 0.00291462 3.49554e-05 0.209138 0.453306 0.866473 255 0 0
-0.00145735 0.00184232 0.000689203 0.309014 -0.0884996 0.946931 255 0 0
-0.00314589 0.0048926 0.00239879 -0.17103 0.122297 0.977646 255 0 0
-0.00164084 0.00183979 0.00074261 0.280831 -0.0966573 0.954878 255 0 0
-0.00194775 0.00183565 0.000828921 0.191592 0.00812781 0.981441 255 0 0
-0.00319241 0.00182016 0.00113172 0.230373 0.0150015 0.972987 255 0 0
-0.00381774 0.00629615 0.00197532 0.26705 -0.0804631 0.960318 255 0 0
-0.00331897 0.00181874 0.00115681 0.258528 -0.0584253 0.964235 255 0 0
0.00908932 0.00288992 -0.000308245 0.00237786 0.381021 0.924563 255 0 0
-0.0075763 -0.0042795 -0.000439123 0.0878984 -0.203214 0.975181 0 0 255
0.0107342 0.00584964 -0.00078577 0.0133338 0.64102 0.767408 255 0 0
-0.00358046 0.00181645 0.00118609 -0.0528635 -0.0608416 0.996747 255 0 0
-0.00263019 0.00255325 0.00118679 0.452092 -0.526499 0.720008 255 0 0
-0.0038991 -0.0044697 0.000171454 0.0799928 -0.54703 0.833282 0 0 255
-0.00378315 0.00181516 0.0011917 0.0395972 -0.0426833 0.998304 255 0 0
0.000355417 0.00420531 0.000887318 -0.620628 -0.112644 0.775971 255 0 0
-0.00385089 0.00181474 0.00119314 0.050236 -0.0327029 0.998202 255 0 0
-0.00398426 0.00181377 0.00120125 0.0609619 -0.0285563 0.997732 255 0 0
-0.0064985 -0.0066887 -0.000217661 0.491144 0.530136 0.691183 0 0 255
-0.00474882 0.00715692 0.00275606 0.560079 -0.396131 0.727593 255 0 0
-0.00425262 0.00181193 0.00121344 0.160386 -0.048313 0.985871 255 0 0
-0.00038201 0.006086 0.00102054 0.300564 -0.089418 0.949561 255 0 0
-0.0028847 -0.0031383 0.000560096 0.308696 -0.123998 0.943044 0 0 255
-0.00455465 0.00180746 0.00131189 0.420458 0.124665 0.898707 255 0 0
-0.00466694 0.00180513 0.00137248 0.508377 0.188962 0.840147 255 0 0
-0.00490026 0.00179623 0.00164201 0.784819 0.347694 0.512999 255 0 0
-0.0044063 -0.0046599 5.17941e-05 -0.0851866 -0.33953 0.93673 0 0 255
-0.00378853 0.00680107 0.00206939 0.227607 -0.186389 0.955748 255 0 0
-0.00194577 0.00466509 0.00176355 0.819139 0.076694 0.568445 255 0 0
-0.0009193 -0.0009193 0.0009308 0.227284 -0.200866 0.952888 0 0 255
-0.000253914 0.00179233 0.000451167 -0.0693194 0.556293 0.82809 255 0 0
-0.000605026 0.00179104 0.000427411 0.232449 0.328526 0.915444 255 0 0
-0.000667651 0.00179029 0.000441578 0.274601 0.268613 0.923277 255 0 0
-0.000728191 0.0017894 0.000460932 0.287131 0.258491 0.922354 255 0 0
0.0109617 0.00418074 -0.000579624 0.261806 -0.381659 0.88645 255 0 0
-0.00102662 0.00178471 0.000568357 0.288998 0.279323 0.915674 255 0 0
-0.00175736 0.00322666 0.00102145 0.694748 -0.389707 0.604528 255 0 0
-0.00120883 0.0017821 0.000624942 0.184531 0.263681 0.946795 255 0 0
-0.00151541 0.00177793 0.000712074 0.340002 0.0135606 0.940327 255 0 0
-0.00252238 0.00311132 0.00175519 0.486858 -0.671847 0.558204 255 0 0
-0.00225909 0.00284061 0.00111695 0.453812 -0.57261 0.682769 255 0 0
-0.0055475 -0.0039625 -0.000132682 -0.0867077 0.0504957 0.994953 0 0 255
-0.00194631 0.0017722 0.000829844 0.236666 0.040395 0.970751 255 0 0
-0.0020605 -0.0015533 0.000879287 -0.00516542 -0.0353386 0.999362 0 0 255
-0.00213001 0.00176968 0.000882711 0.242672 0.13236 0.961036 255 0 0
-0.00161796 0.00247662 0.000656176 0.34192 -0.046406 0.938583 255 0 0
-0.000888205 0.00146381 0.000729545 0.263109 0.678898 0.685471 255 0 0
-0.00237394 0.00351134 0.00205094 0.546528 -0.537579 0.642118 255 0 0
-0.0030115 0.0001585 0.000708137 -0.384322 0.378654 -0.841972 0 0 255
-0.00231634 0.00176734 0.000929065 0.224374 0.171938 0.959215 255 0 0
-0.00176077 0.00695501 0.00151053 0.22213 -0.0705003 0.972465 255 0 0
-0.00300419 0.00175903 0.00108742 0.199408 0.0647177 0.977777 255 0 0
-0.00306804 0.00175836 0.00109853 0.184214 0.062945 0.980869 255 0 0
0.000521821 0.00532825 0.00117126 -0.0019115 -0.168334 0.985728 255 0 0
-0.00338508 0.0027589 0.00154249 -0.256007 -0.613422 0.747111 255 0 0
-0.00313143 0.00175766 0.0011108 0.207935 0.0402017 0.977316 255 0 0
-0.00319479 0.00175696 0.00112315 0.209003 0.0194932 0.977721 255 0 0
-0.00338518 0.00175487 0.00115938 0.177692 -0.0281793 0.983683 255 0 0
-0.00345039 0.00175429 0.00116709 0.0325108 -0.00400934 0.999463 255 0 0
-0.0013631 -0.0021873 0.000859333 -0.547438 0.28693 0.786119 0 0 255
-0.00351613 0.00175374 0.00117352 -0.0399473 0.0294889 0.998767 255 0 0
-0.0036495 0.00175277 0.00118161 -0.0297261 0.0560552 0.997985 255 0 0
-0.00385252 0.0017515 0.00118641 0.0586937 0.0496068 0.997043 255 0 0
-0.0026311 0.0004755 0.000687835 0.272595 -0.286807 0.918386 0 0 255
-0.00405086 0.00174993 0.00120285 0.0543148 0.0563585 0.996932 255 0 0
0.0059366 0.00480957 0.000200218 0.788165 -0.0232091 0.615027 255 0 0
-0.00381542 0.00332809 0.00151556 0.765824 0.150589 -0.625169 255 0 0
-0.00437398 0.00174683 0.00124878 0.293678 0.12577 0.947594 255 0 0
-0.00449253 0.00174489 0.0012938 0.401013 0.203787 0.893118 255 0 0
0.00235387 0.00419905 0.00109229 0.447464 -0.0125347 0.894214 255 0 0
-0.00466017 0.00174134 0.00138668 0.549758 0.314261 0.773955 255 0 0
-0.0026311 -0.0011729 0.000848067 -0.124521 0.0335983 0.991648 0 0 255
0.000666005 0.00363812 0.000966286 -0.0512011 -0.0115803 0.998621 255 0 0
-0.00471211 0.0017399 0.00142744 0.612729 0.356287 0.705424 255 0 0
-0.00232529 0.00369826 0.00218008 0.525086 -0.49685 0.690959 255 0 0
-0.0043429 -0.0045965 7.90389e-05 -0.0916663 -0.359841 0.9285 0 0 255
-0.00345408 0.00219799 0.00117658 0.102662 -0.0281566 0.994318 255 0 0
0.00915345 0.00331061 -0.000589752 0.0110098 -0.737328 -0.675445 255 0 0
-0.00488513 0.0017319 0.00167701 0.763136 0.414678 0.495647 255 0 0
0.00987944 0.00391981 -0.000787739 0.343602 -0.517546 0.783635 255 0 0
-0.0026311 -0.0028213 0.000615106 0.13283 -0.438211 0.889003 0 0 255
-0.00492608 0.00172976 0.00174515 0.769552 0.416962 0.483666 255 0 0
-0.0006657 0.0018069 0.000982512 -0.222806 -0.0485467 0.973653 0 0 255
0.000509071 0.00171806 0.000987463 -0.0886389 0.139752 0.986211 255 0 0
0.00371173 0.00272228 0.000727338 -0.176584 -0.76502 -0.619325 255 0 0
-0.00390303 0.00225677 0.00125208 0.101371 0.099364 0.989874 255 0 0
8.40119e-05 0.00268139 0.000479435 -0.437706 -0.202909 0.875923 255 0 0
-6.09406e-05 0.00172611 0.000588784 -0.426398 0.572894 0.699984 255 0 0
-0.0004755 0.0026945 0.000760939 -0.566476 0.360633 0.740978 0 0 255
-0.0033285 -0.0063083 0.000162513 0.931225 0.248454 -0.266628 0 0 255
-0.00489424 0.00621604 0.00235398 0.654329 -0.379155 0.65429 255 0 0
-0.000232403 0.00172759 0.000502056 -0.191597 0.595913 0.779858 255 0 0
0.00441019 0.00277215 0.000367747 0.0120744 -0.753445 -0.6574 255 0 0
-0.0029119 0.0027619 0.00152998 0.30062 -0.721256 0.624033 255 0 0
0.000956914 0.00184689 0.00150761 -0.549912 0.225565 0.804187 255 0 0
-0.0010764 0.00171978 0.00061182 0.302348 0.326097 0.895682 255 0 0
-0.00127994 0.00173038 0.000683448 0.00219614 0.353025 0.935611 128 0 128
-0.000170312 0.00318545 0.000547915 0.325126 -0.35222 0.877629 255 0 0
0.00234203 0.00287902 0.000666611 0.0940625 0.311529 0.945569 255 0 0
-0.00174861 0.00172715 0.000791003 0.253742 0.00314599 0.967267 128 0 128
-0.0058645 -0.0044063 -0.000192224 -0.271804 -0.455192 0.847893 0 0 255
-0.00251491 0.00438819 0.00241766 0.289127 0.0866604 0.95336 255 0 0
0.0033285 0.0056109 0.00113838 0.31677 0.259298 0.912371 0 0 255
-0.0019971 -0.0017435 0.000856145 -0.0132851 -0.177318 0.984064 0 0 255
-0.0061815 -0.0052305 -0.000381327 -0.00926021 0.0226593 -0.9997 0 0 255
-0.00199946 0.00170749 0.000864932 0.26335 0.182332 0.947313 255 0 0
-0.00154857 0.00273033 0.000669518 0.426579 -0.189215 0.884437 255 0 0
-0.00287072 0.00169665 0.00107689 0.215225 0.164162 0.962668 255 0 0
-0.00312852 0.00169412 0.00111539 0.212191 0.0921197 0.972877 255 0 0
0.00191942 0.00280941 0.000802356 0.563194 -0.214468 0.798007 255 0 0
-0.0034484 0.00169081 0.0011694 0.0612447 0.124554 0.990321 255 0 0
-0.00351379 0.00169024 0.00117666 -0.00506027 0.16265 0.986671 255 0 0
0.0088637 0.00594308 -0.000778533 0.303547 -0.052564 0.951365 255 0 0
0.0022507 0.0067521 0.000459293 0.347907 -0.411071 -0.842604 0 0 255
-0.00364685 0.00168925 0.00118555 -0.0205463 0.196846 0.980219 255 0 0
0.00130791 0.00527165 0.00108473 0.139673 -0.00756817 0.990169 255 0 0
-0.0038482 0.00168787 0.00119451 0.0541595 0.179747 0.982221 255 0 0
-0.0019971 -0.0036455 0.00115585 0.552736 -0.44712 -0.703255 0 0 255
-0.00442766 0.00168215 0.00128257 0.362744 0.287794 0.886336 255 0 0
-0.00459613 0.00167865 0.00137336 0.503657 0.392145 0.769774 255 0 0
0.00259269 0.00488673 0.00112873 0.256263 0.128544 0.958022 255 0 0
0.0014899 0.0030115 0.00104349 0.223803 0.0633089 0.972576 0 0 255
-0.00234377 0.00426482 0.00232817 0.579256 0.0352595 0.814383 255 0 0
-0.000292806 0.00166335 0.000519085 -0.131648 0.626507 0.768218 255 0 0
-0.0012997 -0.0004121 0.00092573 -0.163162 -0.0709239 0.984047 0 0 255
-0.00051106 0.00166306 0.000485944 0.116199 0.532377 0.838494 255 0 0
-0.0006657 0.0025043 0.000748764 -0.496322 0.420549 0.759475 0 0 255
-0.0020763 0.00637228 0.00159484 0.227964 -0.273967 0.934331 255 0 0
-0.000701684 0.00166099 0.000521594 0.277788 0.498764 0.821017 255 0 0
-0.000880995 0.00165819 0.000585412 0.251991 0.481283 0.839564 255 0 0
0.00559637 0.00447421 0.000404491 -0.0177889 -0.0955294 0.995268 255 0 0
-0.00151178 0.0022845 0.000742456 -0.200233 0.594454 0.778801 255 0 0
0.0025677 0.0037723 0.000851289 0.521595 -0.17628 0.834784 0 0 255
-0.000793843 0.00302326 0.000650155 -0.404185 0.214409 0.889192 255 0 0
0.00899858 0.00461733 -0.000813124 -0.560844 0.0153738 -0.827779 255 0 0
0.00156953 0.00521058 0.00105309 0.0511738 0.324057 0.944653 255 0 0
-0.00106149 0.00165547 0.000646292 0.238286 0.431764 0.869942 255 0 0
-0.0041527 -0.0068155 -0.000861605 0.475134 -0.172864 0.862766 0 0 255
0.000936079 0.00551764 0.00118328 0.0777922 -0.509439 0.856983 255 0 0
0.00858043 0.0046035 -0.0003439 0.232772 -0.0541354 0.971024 255 0 0
0.0100471 0.00459869 -0.000825918 0.657516 0.0472219 0.751959 255 0 0
0.000946642 0.00489617 0.00105229 -0.0480093 0.122329 0.991328 255 0 0
-0.00192803 0.00164432 0.000870007 0.324729 0.223106 0.919116 255 0 0
-0.00356205 0.00110882 0.00154276 0.0973209 0.595037 0.797784 255 0 0
0.00329086 0.00345569 0.000526118 0.118512 -0.506555 0.854024 255 0 0
-0.0021117 0.0016418 0.000922964 0.222649 0.330765 0.917072 255 0 0
-0.00433789 0.00584794 0.0020223 0.16293 -0.192966 0.967584 255 0 0
-0.00331422 0.00162838 0.00116063 0.170347 0.216003 0.961418 255 0 0
3.17e-05 0.0037723 0.000600578 0.104134 -0.0866135 0.990785 0 0 255
0.0007291 0.0031383 0.00104479 -0.566272 -0.28463 0.773513 0 0 255
0.00183736 0.00287327 0.000770777 0.316946 0.506545 0.801846 255 0 0
-0.00446685 0.0066021 0.00224349 0.427805 -0.386575 0.817033 255 0 0
-0.00370618 0.00162493 0.00120526 0.00561251 0.309727 0.950809 255 0 0
-0.00377194 0.00162439 0.0012116 0.05232 0.30631 0.950493 255 0 0
-0.0017435 -0.0010461 0.000940298 -0.206593 -0.246066 0.94698 0 0 255
-0.00435692 0.00161902 0.00128594 0.299415 0.407765 0.8626 255 0 0
-0.00207059 0.00196069 0.000868583 0.152139 0.250749 0.956022 255 0 0
-0.0014265 -0.0002219 0.000942408 -0.22621 -0.137732 0.964292 0 0 255
-0.00441585 0.00161803 0.00130929 0.368261 0.426084 0.826339 255 0 0
-0.00458137 0.00161434 0.00140746 0.511027 0.490327 0.705996 255 0 0
0.00750549 0.00438147 -0.000138152 0.0384844 -0.0984023 0.994402 255 0 0
0.00950958 0.00585158 -0.000861054 0.0199652 0.460518 0.887426 255 0 0
-0.00467965 0.0016111 0.00150292 0.59796 0.535413 0.59647 255 0 0
-0.00481019 0.00160516 0.00168818 0.691798 0.499142 0.521798 255 0 0
0.0025043 0.0047233 0.00109937 0.221625 -0.0115373 0.975064 0 0 255
-0.00485172 0.00160305 0.00175485 0.715188 0.466687 0.520297 255 0 0
-0.00262176 0.00421435 0.00237105 0.235296 -0.0366161 0.971234 255 0 0
-0.00254894 0.00289191 0.00148743 0.524816 -0.686544 0.503216 255 0 0
-0.00260491 0.00625034 0.00159059 0.334036 -0.288761 0.897239 255 0 0
-0.0031383 -0.0032017 0.000619744 0.195515 -0.103496 0.975224 0 0 255
-0.000351356 0.00159899 0.000540728 -0.0471674 0.656497 0.752852 255 0 0
-0.00274291 0.00233149 0.00108163 0.282791 -0.462545 0.840286 255 0 0
-0.00153143 0.00371801 0.000903767 0.736078 -0.12381 0.665477 255 0 0
0.0023775 0.0064985 0.000749566 0.478266 -0.643148 -0.598016 0 0 255
-0.0089077 -0.0064985 -0.000812943 -0.11536 0.343959 -0.931872 0 0 255
-0.00200864 0.00297031 0.0010655 0.47932 -0.594676 0.645456 255 0 0
-0.000984181 0.00159192 0.000666007 0.238981 0.552288 0.798665 255 0 0
-0.00444096 0.00377359 0.00133748 0.155916 -0.172842 0.972531 255 0 0
0.00175954 0.00570368 0.00111442 0.134453 -0.52195 0.842313 255 0 0
-0.00507933 0.00126744 0.00236543 -0.192587 -0.479594 -0.856096 255 0 0
-0.001795 0.00342051 0.0012496 0.766835 -0.348073 0.539268 255 0 0
-0.0068155 -0.0044063 -0.000408457 -0.0255472 0.0395343 0.998892 0 0 255
-0.00147812 0.00158547 0.000796906 0.307908 0.589765 0.746572 255 0 0
0.0028847 0.0040893 0.000819635 0.69412 -0.38009 0.611334 0 0 255
0.000139346 0.00364834 0.000637459 -0.466457 0.128018 0.875231 255 0 0
0.00134215 0.00476264 0.00114864 -0.102933 0.0324124 0.99416 255 0 0
-0.00241136 0.00157383 0.00102465 0.180974 0.398855 0.898979 255 0 0
-0.00216124 0.00157686 0.000967062 0.18764 0.456345 0.869793 255 0 0
-0.0082737 -0.0067521 -0.000451419 -0.375298 0.622123 0.687106 0 0 255
-0.00304319 0.0015667 0.00115242 0.186448 0.333739 0.924043 255 0 0
0.00172914 0.00280732 0.000838854 0.390177 0.513313 0.764377 255 0 0
-0.00490083 0.000866542 0.00220594 0.495196 0.550969 0.671725 255 0 0
-0.000200268 0.00507833 0.000893529 0.233679 -0.0884115 0.968286 255 0 0
-0.0071959 -0.0059279 -0.000387019 -0.2713 0.500101 0.822372 0 0 255
-0.00330191 0.00156424 0.0011886 0.158595 0.317319 0.934963 255 0 0
-0.00356168 0.00156184 0.00122218 0.0093221 0.409187 0.912403 255 0 0
-0.00369352 0.00156077 0.0012341 0.00469141 0.422696 0.906259 255 0 0
-0.000889956 0.00740454 0.00148619 -0.0966817 0.404076 -0.909602 255 0 0
-0.0007925 -0.0009827 0.000863414 0.0641026 -0.129129 0.989554 0 0 255
-0.00375808 0.00156014 0.00124346 0.0650741 0.433876 0.89862 255 0 0
-0.0038232 0.00155955 0.00125141 0.0936307 0.443154 0.891542 255 0 0
0.0026945 0.0032651 0.00084152 -0.327015 0.265334 -0.907006 0 0 255
-0.00415272 0.00155686 0.00128143 0.107996 0.497255 0.860857 255 0 0
0.00179424 0.00373809 0.00106403 -0.0586436 -0.166757 0.984253 255 0 0
-0.00496077 0.00153236 0.00199095 0.686691 0.356397 0.63359 255 0 0
0.000358127 0.00152817 0.000943817 -0.224441 0.168212 0.95986 255 0 0
0.0002853 0.0015533 0.00104256 0.0575061 0.240693 0.968896 0 0 255
-0.0038991 -0.0047867 -6.50684e-05 0.22784 -0.563951 0.793756 0 0 255
-0.00376579 0.0021308 0.00124827 0.0921009 -0.00244946 0.995747 255 0 0
0.000276534 0.00501295 0.00105747 -0.484293 -0.174885 0.857249 255 0 0
-0.000538086 0.00153331 0.000583406 0.115838 0.639264 0.760213 255 0 0
0.000841982 0.00412787 0.00106726 0.0985786 -0.0321578 0.99461 255 0 0
-0.00489956 0.00262454 0.00150834 0.562429 -0.035742 0.826072 255 0 0
-0.0032651 -0.0036455 0.000512419 0.302191 -0.426144 0.852691 0 0 255
-0.00078616 0.00153016 0.000646106 0.2318 0.607331 0.75988 255 0 0
-0.00217346 0.00504278 0.00176368 -0.356083 -0.718688 -0.597237 255 0 0
-0.000906047 0.00152831 0.000687788 0.222925 0.569428 0.791237 255 0 0
-0.00245737 0.00535645 0.00157675 0.554624 0.277196 0.784573 255 0 0
0.0013805 0.00274265 0.00113986 -0.0327705 0.525269 0.850305 255 0 0
-0.00245839 0.00150873 0.00107498 0.172156 0.49743 0.85025 255 0 0
0.0002219 0.0024409 0.00105548 -0.0951079 -0.0539043 0.994006 0 0 255
-0.0016167 -0.0015533 0.000866507 0.0379656 -0.118106 0.992275 0 0 255
-0.00281187 0.00182434 0.00105868 0.237621 0.147146 0.960148 255 0 0
9.07432e-05 0.00338872 0.000565426 -0.24163 -0.329994 0.912534 255 0 0
0.00559393 0.00565802 0.000137645 0.251898 -0.0826934 0.964214 255 0 0
-0.0006657 -0.0003487 0.00100755 0.156405 -0.108508 0.981715 0 0 255
-0.00351155 0.00579354 0.0018659 0.197451 0.251052 0.947621 255 0 0
-0.00419964 0.00149175 0.00133202 0.154899 0.593082 0.790101 255 0 0
-0.00443434 0.00148773 0.00142802 0.398292 0.631406 0.665349 255 0 0
-0.00448772 0.00148639 0.00146519 0.450052 0.628203 0.634677 255 0 0
-0.00458717 0.00148322 0.00155775 -0.539108 -0.609499 -0.581269 255 0 0
-0.00475293 0.00471045 0.00179136 0.758948 -0.278555 0.588562 255 0 0
-0.00494341 0.00146789 0.00203151 0.683442 0.414734 0.600752 255 0 0
-0.00498771 0.00146596 0.00209129 0.654985 0.437333 0.616225 255 0 0
0.000368288 0.00146416 0.000966447 -0.18412 0.104035 0.977383 255 0 0
-0.0032017 -0.0043429 0.000109564 -0.337363 -0.0673802 0.93896 0 0 255
-5.80003e-05 0.00146772 0.000755522 -0.332908 0.592247 0.733769 255 0 0
0.00568899 0.00268812 0.000328222 -0.21932 -0.423744 -0.878828 255 0 0
-0.000380405 0.00146937 0.000633156 -0.06233 0.648171 0.75894 255 0 0
-0.0006657 -9.51e-05 0.00100155 0.0807904 0.0484873 0.995551 0 0 255
-0.000450496 0.0014691 0.000628732 0.0229087 0.682955 0.730101 255 0 0
-0.000581962 0.001468 0.000641585 0.12698 0.64723 0.751644 255 0 0
-0.000644955 0.00146728 0.000654833 0.172615 0.631822 0.755649 255 0 0
-0.0034553 -0.0061815 -0.000202435 0.870389 0.429058 -0.24152 0 0 255
-0.00144549 0.00145666 0.000872816 0.190151 0.538015 0.821208 255 0 0
-0.0069423 -0.0049769 -0.000381784 -0.0643286 -0.0319482 0.997417 0 0 255
-0.00156946 0.00145508 0.00090434 0.29066 0.562021 0.774371 255 0 0
-0.00175677 0.0014528 0.000948228 0.109765 0.65427 0.748253 255 0 0
0.00209849 0.0042565 0.00116515 0.118674 -0.127341 0.984734 255 0 0
-0.0029472 0.0014386 0.00121599 0.150545 0.519395 0.841169 255 0 0
0.00253117 0.00415209 0.0010599 0.213938 -0.112118 0.970392 255 0 0
-0.00339951 0.00143425 0.00128045 0.1332 0.491946 0.860376 255 0 0
-0.00381832 0.00642289 0.00197921 0.216621 -0.148856 0.964841 255 0 0
-0.0038357 -0.0022507 0.000428605 -0.226704 0.167831 0.959395 0 0 255
-0.0028213 -0.0042161 0.000580815 0.786555 -0.517792 -0.336486 0 0 255
0.00144513 0.00331329 0.000833412 0.0747658 -0.487824 0.869734 255 0 0
-0.00191593 0.00673013 0.00168181 0.192544 -0.637948 0.74562 255 0 0
-0.00146617 0.00165126 0.00079321 0.268397 0.527821 0.805834 255 0 0
-0.00393651 0.00149393 0.0013068 0.0912326 0.54017 0.836596 255 0 0
0.0005389 0.0027579 0.000962947 0.21773 0.381474 0.898371 0 0 255
-0.000984438 0.00194386 0.000638333 0.488706 -0.203561 0.848369 255 0 0
0.00281571 0.00307942 0.000607191 0.343125 0.353563 0.870206 255 0 0
-0.00378886 0.00143063 0.00133158 0.0856082 0.568916 0.817928 255 0 0
-0.00391777 0.00142937 0.00135078 0.102852 0.580178 0.807969 255 0 0
0.00221862 0.0033702 0.000831069 0.104388 -0.621018 0.776814 255 0 0
-0.0018069 -0.0015533 0.000874289 0.0363137 -0.00528748 0.999326 0 0 255
-0.00404659 0.0014281 0.00137023 0.106852 0.603233 0.790375 255 0 0
-0.00411207 0.00142754 0.00137729 0.12699 0.61763 0.776149 255 0 0
0.000152491 0.00350779 0.000620242 -0.486521 -0.0807016 0.869934 255 0 0
0.00154432 0.00414686 0.00111363 -0.0725398 -0.0755581 0.994499 255 0 0
0.0007925 0.0051037 0.000612935 -0.428668 0.220107 -0.87624 0 0 255
-0.00163196 0.00145432 0.000918803 0.184691 0.579341 0.793885 255 0 0
-0.00461077 0.00141661 0.00166641 0.564847 0.576712 0.590213 255 0 0
-0.00465804 0.00141487 0.00171882 0.589498 0.527821 0.611472 255 0 0
-0.00473511 0.004836 0.00184106 0.698969 -0.295279 0.651347 255 0 0
-0.0003487 -0.0004755 0.000877713 -0.0672283 -0.0083839 0.997702 0 0 255
-0.00494423 0.00236923 0.00155654 0.730527 0.0482836 0.681175 255 0 0
-0.00335283 0.00418737 0.00232574 -0.477403 -0.0923541 0.873818 255 0 0
-0.0025677 -0.0011729 0.000859628 -0.0882068 0.0587667 0.994367 0 0 255
-0.00470386 0.00141303 0.00177482 0.607174 0.506161 0.612487 255 0 0
0.0104517 0.00392965 -0.000776982 -0.252867 -0.493279 0.832307 255 0 0
-0.0071959 -0.0043429 -0.000421688 -0.0310223 0.0323755 0.998994 0 0 255
-0.00479276 0.00140919 0.00189366 0.6524 0.441766 0.615806 255 0 0
-0.00416072 0.003336 0.00116609 -0.338006 -0.262452 0.903809 255 0 0
-0.000923022 0.000686682 0.0012912 0.207554 0.480349 0.852166 255 0 0
-0.00501534 0.0013996 0.00218993 0.717489 0.443264 0.537332 255 0 0
-3.86718e-05 0.00140312 0.000800978 -0.316097 0.595617 0.73846 255 0 0
-0.000121499 0.00140368 0.000764843 -0.286221 0.599627 0.747345 255 0 0
-0.000200264 0.00501498 0.000890873 0.242504 -0.0959643 0.965392 255 0 0
-0.0084005 -0.0071959 -0.000234087 0.683918 -0.410716 -0.602967 0 0 255
-0.000820309 0.00330619 0.000635773 -0.397786 0.132798 0.907817 255 0 0
-0.000356441 0.00140447 0.000690153 -0.0645669 0.661644 0.747033 255 0 0
-0.0084005 -0.0056743 -0.000591781 0.0120051 -0.188509 0.981998 0 0 255
0.00381638 0.00382344 0.000667126 0.421551 -0.274306 0.864321 255 0 0
-0.000494388 0.00140379 0.00068687 0.061139 0.678173 0.732355 255 0 0
-0.000559862 0.00140322 0.000693941 0.111213 0.673228 0.731024 255 0 0
-0.000623817 0.00140256 0.000704794 -0.104091 -0.705457 -0.701067 255 0 0
0.00504006 0.00398298 0.000337685 0.747939 -0.0673751 0.660339 255 0 0
-0.0060547 -0.0073227 -8.60279e-05 0.580189 0.41706 0.699601 0 0 255
-0.000747464 0.00140096 0.000737116 -0.210096 -0.713161 -0.668776 255 0 0
-0.0055475 -0.0061815 -0.00067669 0.141506 -0.114044 0.983346 0 0 255
-0.00105355 0.00139676 0.000825472 0.181573 0.589563 0.787049 255 0 0
0.0025043 0.0033285 0.000696076 0.145817 -0.453184 0.87941 0 0 255
-0.00174207 0.00234314 0.000681188 0.264199 0.0927123 0.960002 255 0 0
-0.0073861 -0.0033285 0.000220064 0.0201212 0.549327 -0.835365 0 0 255
-0.00313691 0.00691129 0.00206727 -0.141998 -0.370252 -0.918014 255 0 0
-0.00441138 0.0014229 0.00148251 0.385899 0.648868 0.655784 255 0 0
-0.0048501 -0.0028847 -6.50889e-05 -0.411718 0.090555 0.906801 0 0 255
-0.00269783 0.00319403 0.00199145 0.442495 -0.610753 0.656642 255 0 0
-0.00148976 0.00139138 0.000930014 0.407665 0.549715 0.729124 255 0 0
-0.0012363 0.0006023 0.000914191 -0.0860388 0.0923177 0.992005 0 0 255
0.00240831 0.00539202 0.000855848 0.145103 -0.0201818 0.989211 255 0 0
-0.00173954 0.00138833 0.000988458 0.150219 0.616198 0.773132 255 0 0
-0.0018012 0.00138752 0.00100502 0.172027 0.617337 0.76766 255 0 0
-0.00292906 0.00137407 0.00125849 0.141769 0.567189 0.811294 255 0 0
-0.00351029 0.00136847 0.00134213 0.0874897 0.538042 0.838365 255 0 0
-0.00116155 0.00317756 0.000631272 0.297591 -0.177449 0.938057 255 0 0
-0.0011729 -0.0013631 0.000860639 0.197186 -0.2952 0.934866 0 0 255
-0.0080835 -0.0056743 -0.000637059 0.0751929 -0.307933 0.948432 0 0 255
0.00771219 0.00289411 -0.000202869 0.143693 0.414181 0.898781 255 0 0
-0.00453997 0.00135348 0.00166993 0.516823 0.56 0.647529 255 0 0
-0.00461424 0.00502784 0.00180982 0.650944 -0.387228 0.652937 255 0 0
-0.00472618 0.00489878 0.00186596 0.653537 -0.296464 0.696419 255 0 0
0.0048424 0.0032846 0.000274584 0.218324 0.0101339 0.975824 255 0 0
-0.00468158 0.00134824 0.00182763 0.5999 0.502768 0.62237 255 0 0
-0.00481788 0.00134267 0.00199854 0.643108 0.487233 0.590776 255 0 0
-0.00113375 0.00240746 0.000739099 0.287919 -0.133649 0.948283 255 0 0
-0.00252708 0.00295586 0.00147557 0.5223 -0.686987 0.505224 255 0 0
0.00496645 0.00582891 0.000404393 0.267646 -0.459839 0.846707 255 0 0
-0.0049541 0.00133708 0.00216964 0.639549 0.527602 0.559119 255 0 0
0.0070264 0.00587419 -0.000266065 0.329301 -0.380391 0.864213 255 0 0
-0.0077031 -0.0045331 -0.000467578 -0.0168512 -0.0906485 0.99574 0 0 255
0.0065422 0.00355662 -0.000208597 0.278494 -0.504723 0.817126 255 0 0
-0.0056109 -0.0056743 -0.000547748 -0.244632 -0.470954 0.84756 0 0 255
-0.00499951 0.00133522 0.00222667 0.666535 0.559805 0.492291 255 0 0
0.00359187 0.00585258 0.000713392 0.297404 -0.421603 0.856622 255 0 0
0.0027579 0.0035187 0.000682538 0.185811 -0.430865 0.88308 0 0 255
0.00410465 0.00449942 0.000536798 0.649487 -0.108302 0.752621 255 0 0
-0.00043538 0.00513769 0.000991169 0.319836 -0.0880485 0.943373 255 0 0
-0.00239184 0.00459165 0.00221454 0.545111 0.26702 0.794704 255 0 0
-0.0039625 -0.0012997 0.000240834 0.126764 -0.345343 0.929876 0 0 255
0.000308622 0.00133652 0.000982644 -0.130896 0.0980158 0.986539 255 0 0
0.0104715 0.00384925 -0.000842155 -0.19598 -0.501994 0.842374 255 0 0
-0.00276879 0.00508706 0.00232516 0.407907 0.380236 0.83008 255 0 0
0.0007925 0.0040259 0.000808287 0.280879 -0.376294 -0.882898 0 0 255
0.00809029 0.00276705 -0.00019923 -0.0938741 -0.380878 -0.919848 255 0 0
0.00172866 0.0029376 0.000902145 0.178615 0.670325 0.72025 255 0 0
0.0015533 0.0053573 0.000741791 0.834675 -0.466802 -0.292255 0 0 255
-0.000740601 0.00262041 0.000629294 0.305961 -0.2002 0.930757 128 0 128
0.0011729 0.0040259 0.00101239 -0.17822 -0.103759 0.978505 0 0 255
-0.000332253 0.00133956 0.000747708 0.0567865 -0.726062 -0.685281 255 0 0
0.0042795 0.0068155 0.00150737 -0.534377 -0.498957 0.682264 0 0 255
0.00632417 0.00586602 -2.58527e-05 0.287273 -0.427412 0.857201 255 0 0
-0.0030749 -0.0026945 0.000569182 -0.260504 -0.25153 0.932132 0 0 255
0.00585185 0.00396877 0.000243082 0.579152 -0.171147 0.797052 255 0 0
-0.00066468 0.00133706 0.000770474 -0.148641 -0.720848 -0.676967 255 0 0
-0.00478859 0.00262696 0.00144445 0.399149 -0.0859801 0.912846 255 0 0
-0.0032651 -0.0037723 0.000435447 0.389714 -0.492934 0.777907 0 0 255
-0.000788291 0.00133545 0.000802886 0.201527 0.657014 0.726443 255 0 0
-0.00441427 0.00503409 0.00162737 0.482028 -0.399367 0.779843 255 0 0
-0.0004121 0.0021239 0.000972061 0.0168985 0.263034 0.964639 0 0 255
0.00334276 0.00358316 0.00063624 -0.052784 -0.437447 0.897694 255 0 0
0.0100473 0.00586231 -0.000957857 0.131914 0.328632 0.9352 255 0 0
0.0023737 0.00275028 0.000740112 -0.215174 0.866871 0.449706 255 0 0
-0.000362631 0.00197927 0.00035314 0.301756 0.135285 0.943738 255 0 0
-0.000489361 0.00292868 0.00059332 0.329937 -0.172251 0.928155 255 0 0
0.00670431 0.00467583 0.00010583 0.475509 -0.00682513 0.879684 255 0 0
-0.0037723 -0.0026945 0.000613757 0.0437233 0.212045 0.976281 0 0 255
0.00170008 0.00463679 0.00118402 -0.139848 -0.0227303 0.989912 255 0 0
-0.00190649 0.00132138 0.00108038 0.171367 0.63131 0.75636 255 0 0
0.00348046 0.00469126 0.000821276 -0.0157196 -0.0203264 0.99967 255 0 0
0.00448888 0.00315086 0.000239233 -0.0733552 0.301163 0.950747 255 0 0
-0.00316694 0.00130691 0.00134389 0.129751 0.579836 0.804335 255 0 0
-0.00336113 0.00130507 0.00137066 0.117954 0.582569 0.804176 255 0 0
-0.00381329 0.00130072 0.0014355 0.107211 0.598851 0.793652 255 0 0
-0.00206585 0.00376882 0.00197826 0.78328 -0.36322 0.504523 255 0 0
-0.0037089 -0.0026945 0.000609715 0.0947433 0.272703 0.957422 0 0 255
-0.0042161 -0.0048501 -4.33272e-05 0.110269 -0.47363 0.873794 0 0 255
-0.00400591 0.00129878 0.00146618 0.141814 0.620821 0.771019 255 0 0
-0.00415013 0.00498555 0.00157167 -0.377377 -0.239954 0.894432 255 0 0
-0.0036455 -0.0061815 -0.00073157 -0.473528 -0.653188 0.590861 0 0 255
-0.0049076 0.00445266 0.00190586 0.790145 -0.157133 0.592436 255 0 0
-0.0084639 -0.0055475 -0.000593108 -0.0288331 -0.112224 0.993265 0 0 255
-0.00436332 0.0012931 0.00159682 0.387604 0.612702 0.688738 255 0 0
-0.000564687 0.00419098 0.0007993 -0.408913 -0.157158 0.898939 255 0 0
-0.00479836 0.00127805 0.00204447 0.63159 0.545789 0.550644 255 0 0
-0.0045965 -0.0020605 0.000111454 0.277159 -0.36582 0.888458 0 0 255
0.00253837 0.00591199 0.00111341 0.055593 -0.287893 0.956048 255 0 0
-0.00489184 0.00127451 0.00215189 0.677451 0.407734 0.61222 255 0 0
-0.0035187 -0.0022507 0.000578953 -0.395858 -0.32278 0.859715 0 0 255
-0.00203111 0.000608608 0.00159122 0.190303 0.468443 0.862755 255 0 0
0.000476724 0.00128576 0.0010509 0.0512783 0.0755466 0.995823 128 0 128
0.000106891 0.00552113 0.000996611 -0.500506 -0.0585425 0.863751 255 0 0
-0.00466613 0.000902959 0.00201675 0.437688 0.533147 0.724005 255 0 0
-0.0010461 0.0013631 0.000945813 0.107818 0.469571 0.876287 0 0 255
0.00394903 0.00276838 0.000410152 -0.1081 -0.86216 -0.494969 255 0 0
-0.00461097 0.00703569 0.00258368 0.569299 -0.393 0.722115 255 0 0
0.000159955 0.00127318 0.000950003 -0.174301 0.136817 0.975141 255 0 0
0.0023775 0.0035187 0.000888664 0.353086 -0.529483 0.771348 0 0 255
-0.000474625 0.000949475 0.00105758 0.0543759 0.304812 0.950859 255 0 0
-0.0053573 -0.0032651 -0.000125942 0.257289 -0.214657 0.942191 0 0 255
0.00844887 0.00410468 -0.000399276 -0.13055 -0.330907 0.93459 255 0 0
0.00529132 0.00401897 0.000200071 -0.170464 -0.0990268 0.980375 255 0 0
-0.0017435 0.0001585 0.000919484 -0.279332 -0.071396 0.957536 0 0 255
-0.000378865 0.00127442 0.000799075 -0.0569852 0.696121 0.715659 255 0 0
-0.000447955 0.00127409 0.000797143 -0.0300108 -0.71192 -0.701619 255 0 0
0.00299641 0.00307954 0.000432913 0.170671 0.155781 0.972936 255 0 0
0.0113919 0.00607907 -0.000979637 0.200287 -0.438976 -0.875891 255 0 0
-0.0049769 -0.0064985 -0.000750289 -0.367329 -0.362716 0.85645 0 0 255
-0.00325256 0.00124029 0.0014167 0.117594 0.59901 0.79206 255 0 0
-0.0038991 -0.0042795 0.000280085 -0.0496107 -0.487785 0.871553 0 0 255
-0.000829148 0.00126995 0.000868581 0.138597 0.574557 0.806644 255 0 0
-0.00142196 0.00727385 0.00151699 0.222507 -0.354748 0.908099 255 0 0
-0.00138806 0.0012629 0.00100779 -0.32226 -0.713506 -0.62214 255 0 0
-0.0070691 -0.0059279 -0.000434972 0.0492839 -0.53263 -0.844912 0 0 255
-2.96928e-05 0.00479397 0.000771914 -0.0280289 -0.154262 0.987632 255 0 0
-0.00145122 0.00126219 0.00102064 -0.329673 -0.832444 -0.445369 255 0 0
-0.00201264 0.0012553 0.00115361 0.167091 0.624074 0.763291 255 0 0
0.00882512 0.00359783 -0.00084033 0.156597 0.0512702 0.986331 255 0 0
-0.000739259 0.00400261 0.000696826 -0.0209053 -0.193045 0.980967 255 0 0
-0.00419899 0.0039042 0.00134557 -0.309963 -0.197028 0.930109 255 0 0
-0.0030115 -3.17e-05 0.000633608 0.297078 -0.328243 0.896661 0 0 255
-0.0042161 -0.0034553 0.000503163 -0.178001 -0.18975 0.965562 0 0 255
-0.00461339 0.00477917 0.00163118 0.626515 -0.329461 0.706353 255 0 0
-0.00276579 0.00124642 0.00131947 0.150091 0.594359 0.79007 255 0 0
0.0012363 0.0019971 0.000959542 0.424713 -0.189391 0.885296 0 0 255
-0.00235095 0.00550407 0.00150891 0.455156 0.0714725 0.887539 255 0 0
-0.0046599 -0.0042795 0.000126384 -0.232109 -0.288825 0.928819 0 0 255
-0.00327741 0.00124111 0.00140635 0.118231 0.595438 0.794654 255 0 0
0.0006023 0.0012363 0.0010157 0.319823 -0.051059 0.946101 0 0 255
-0.00366598 0.00123744 0.00145944 0.0942445 0.596888 0.79677 255 0 0
0.00886081 0.00441865 -0.000575842 0.807706 -0.0138269 0.589423 255 0 0
-0.00454333 0.0012222 0.00182632 0.503233 0.588976 0.632348 255 0 0
-0.00463863 0.00121877 0.00192922 0.531037 0.550101 0.644506 255 0 0
-0.00468594 0.00121703 0.00198152 0.594824 0.566772 0.570047 255 0 0
0.000766636 0.00586108 0.00135885 -0.166812 -0.529301 0.831874 255 0 0
0.0019339 0.00287365 0.000954391 0.0581585 0.594533 0.801965 255 0 0
-0.0027579 0.0004755 0.000734147 -0.351459 0.352337 -0.867372 0 0 255
-0.00482748 0.00121179 0.00213937 0.613909 0.566588 0.549631 255 0 0
-0.0056743 -0.0045331 -0.000203144 -0.320283 -0.448681 0.834328 0 0 255
-0.00506831 0.00120338 0.00239021 0.191744 0.399001 0.896678 255 0 0
0.0019337 0.0035187 0.00105786 -0.0273826 -0.370718 0.928342 0 0 255
0.00413772 0.00578321 0.000514983 0.270267 -0.369962 0.888867 255 0 0
-0.0025867 0.00650257 0.00164661 0.261317 -0.241954 0.934437 255 0 0
-0.000418517 0.00242688 0.00040819 0.439521 -0.217906 0.8714 255 0 0
0.000307968 0.00119065 0.00104465 -0.0779475 0.0558931 0.995389 128 0 128
0.000252452 0.00120865 0.00100755 -0.088102 0.102217 0.990853 255 0 0
9.45755e-05 0.00120926 0.000954644 -0.205348 0.119156 0.971408 255 0 0
1.64889e-05 0.00120951 0.000930313 -0.199086 0.113055 0.973439 255 0 0
-6.14937e-05 0.00120975 0.000906241 -0.212037 0.329179 0.920153 255 0 0
0.0038708 0.00588785 0.000661973 -0.349947 0.303509 -0.886239 255 0 0
-0.00264629 0.00150648 0.00111741 0.18291 0.487295 0.853866 255 0 0
-0.00021303 0.00120995 0.000869123 -0.185883 0.508172 0.840957 255 0 0
-0.0027579 -0.0027579 0.000648235 -0.0721212 -0.387644 0.918983 0 0 255
0.000243074 0.00334568 0.000648543 0.74155 0.321004 -0.589118 255 0 0
-0.000950351 0.000815148 0.00122849 0.360311 0.59565 0.717898 255 0 0
-0.00231805 0.00047647 0.00172189 -0.198787 -0.46069 -0.865013 255 0 0
-0.00111768 0.00120126 0.000997966 -0.0113279 0.315244 0.948943 255 0 0
-0.00149393 0.0011968 0.0010817 0.174659 0.673162 0.718573 255 0 0
-0.00180533 0.00119294 0.00115684 0.158652 0.643175 0.749103 255 0 0
-0.00186853 0.00119223 0.00116956 0.162762 0.633679 0.75628 255 0 0
-0.00199409 0.00119075 0.00119714 0.173303 0.618159 0.76671 255 0 0
0.00810497 0.00282701 -0.000222255 -0.088273 -0.40524 -0.909938 255 0 0
-0.00319499 0.00117723 0.0014388 0.121643 0.598022 0.792195 255 0 0
0.0013631 0.0023775 0.000954887 0.0867205 -0.192139 0.977529 0 0 255
-0.00231693 0.00118379 0.00131647 0.13117 0.592268 0.794992 255 0 0
-0.0051671 -0.0039625 2.86965e-05 -0.451731 -0.0494396 0.890783 0 0 255
-0.00364682 0.00117285 0.00150446 0.0971185 0.600061 0.794037 255 0 0
0.0001585 0.0023141 0.00102708 -0.208451 -0.200735 0.957211 0 0 255
-0.00227395 0.00609527 0.00151863 0.156031 -0.221804 0.962527 255 0 0
-0.00402783 0.0011687 0.00157634 0.188429 0.617788 0.763434 255 0 0
-0.0035187 -0.0056109 0.000378497 0.917309 0.129641 -0.376481 0 0 255
-0.00452197 0.00115747 0.00187684 0.509572 0.554937 0.657558 255 0 0
-0.00476178 0.00114899 0.0021302 0.627548 0.551549 0.549525 255 0 0
-0.00495962 0.0011426 0.00231798 0.695424 0.426309 0.578486 255 0 0
0.00366393 0.0039617 0.000771542 0.131499 -0.172568 0.976181 255 0 0
-0.0085273 -0.0068789 -0.000725911 0.783367 -0.209914 -0.585041 0 0 255
-0.00505726 0.00113931 0.00241505 0.0482696 0.360912 0.93135 255 0 0
-0.00510811 0.00113781 0.00245853 -0.0412192 0.320179 0.94646 255 0 0
-0.00208822 0.00334482 0.00152095 0.626167 -0.547156 0.55546 255 0 0
-4.42912e-05 0.00114529 0.000946404 -0.200431 0.0362792 0.979036 255 0 0
-0.000118856 0.00114531 0.000930841 -0.191936 0.0576687 0.979712 255 0 0
-0.00503176 0.00126916 0.00231379 0.618815 0.49204 0.612344 255 0 0
-0.0071325 -0.0063083 -0.000104593 -0.0634373 -0.575093 -0.815625 0 0 255
-0.00514462 0.00318177 0.00194273 0.808931 -0.0950989 0.580161 255 0 0
0.00269171 0.00601493 0.00114847 -0.143338 0.0703625 -0.987169 128 0 128
-0.00141136 0.00113291 0.00111454 0.176478 0.635364 0.751776 255 0 0
-0.00401693 0.00301955 0.0011706 -0.629478 -0.214667 0.746776 255 0 0
0.000191977 0.00267921 0.000578158 -0.630743 -0.221249 0.743783 255 0 0
0.00125885 0.00501663 0.00112198 -0.0488334 0.209922 0.976498 255 0 0
-0.000245443 0.0030588 0.000525606 0.43295 -0.285355 0.85506 255 0 0
-0.00203793 0.00112544 0.0012554 0.160086 0.587584 0.793169 255 0 0
-0.0021625 0.0011239 0.00128541 0.162764 0.578248 0.799461 255 0 0
0.000787918 0.00162948 0.00145193 -0.554143 0.267672 0.788211 255 0 0
-0.000437729 0.00217472 0.000349687 0.424893 -0.143907 0.893732 255 0 0
0.0109893 0.00424036 -0.000562265 0.362703 -0.264865 0.893472 255 0 0
-0.00304877 0.00111402 0.00146002 0.131354 0.596279 0.791958 255 0 0
-0.0033285 -0.0066887 -0.000100983 1 0 -0 0 0 255
-0.00330387 0.00111132 0.00150524 0.112696 0.588119 0.800884 255 0 0
0.00353028 0.00364813 0.000638058 -0.0319636 -0.513753 0.857342 255 0 0
0.0023775 0.0032017 0.000709517 0.366814 -0.185825 0.911546 0 0 255
-0.0012997 -0.0019971 0.000806426 -0.431474 0.194118 0.880993 0 0 255
-0.00336826 0.00111069 0.00151499 0.106173 0.588321 0.801627 255 0 0
-0.00349699 0.00110941 0.00153467 0.100997 0.593408 0.79854 255 0 0
-0.00509921 0.00204331 0.0018377 0.728981 0.234146 0.643244 255 0 0
-0.00494742 0.00255949 0.0015566 0.64346 0.0195293 0.765231 255 0 0
-0.0016698 0.00632521 0.00137017 0.243366 -0.132644 0.960822 255 0 0
-0.00400687 0.00110399 0.00162587 0.184044 0.603537 0.775804 255 0 0
-0.004811 0.00114738 0.00217774 -0.594686 -0.610452 -0.52316 255 0 0
-0.00429177 0.00109843 0.00176696 0.349637 0.635537 0.688365 255 0 0
-0.00238044 0.000475706 0.00173664 -0.196831 -0.462789 -0.86434 255 0 0
-0.00133921 0.00500704 0.000946633 0.252488 -0.0963577 0.96279 255 0 0
-0.0036455 -0.0073227 -0.000905263 0.813607 -0.391564 -0.429793 0 0 255
-0.00289558 0.00417894 0.00243838 -0.0515132 -0.0581112 0.99698 255 0 0
-0.0026945 -0.0012997 0.000834486 -0.200328 -0.0764412 0.976742 0 0 255
-0.0044669 0.00108051 0.00177529 0.402868 0.563148 0.7215 255 0 0
-0.00494758 0.00107847 0.00234528 0.592456 0.390729 0.704505 255 0 0
0.00981814 0.00530399 -0.000592717 0.547505 0.147121 0.823768 255 0 0
-0.00245201 0.00523165 0.00175852 -0.578079 -0.599251 -0.553826 255 0 0
-0.0044697 -0.0062449 -0.000651252 0.34224 -0.0975491 0.934535 0 0 255
0.00027402 0.00108056 0.00105591 -0.0904585 0.0791267 0.992752 255 0 0
0.0011095 0.0047233 0.000796507 0.470826 -0.706899 -0.527842 0 0 255
-0.00471341 0.00115066 0.00208054 0.61843 0.529568 0.580605 255 0 0
-0.000589813 0.00109376 0.000982871 0.111615 0.314075 0.942814 128 0 128
0.0012997 0.0015533 0.000877504 -0.21522 0.22822 0.949524 0 0 255
-0.0084005 -0.0068789 -0.000470798 0.65115 -0.497974 -0.572735 0 0 255
0.0101786 0.00481709 -0.000886992 -0.0874253 0.0173668 0.99602 255 0 0
-0.00109094 0.00279769 0.000620979 -0.407979 0.287616 0.866505 255 0 0
-0.000973746 0.0011382 0.00101349 -0.0283123 0.284552 0.958242 255 0 0
0.00288939 0.00333027 0.000517302 0.282739 -0.485815 0.827068 255 0 0
-0.00139222 0.00106832 0.00115953 0.169459 0.495941 0.851661 255 0 0
-0.0024338 0.00118559 0.00129296 0.133567 0.609945 0.781106 255 0 0
-0.00176732 0.00106379 0.00124614 0.158815 0.53248 0.83141 255 0 0
0.0020605 0.0054841 0.000861134 0.222763 0.35244 0.908935 0 0 255
-0.00136325 0.00638017 0.00138837 0.262898 -0.0872031 0.960875 255 0 0
0.00726229 0.00348445 -0.000520059 0.229248 -0.0740199 0.97055 255 0 0
-0.00214409 0.00105936 0.00132857 0.141302 0.529545 0.83643 255 0 0
-0.00227065 0.00105794 0.00135365 0.148956 0.544713 0.825288 255 0 0
-0.00233383 0.00105723 0.00136644 0.13781 0.544535 0.827339 255 0 0
-0.0049135 -0.0066253 -0.000781676 -0.403321 -0.407071 0.819527 0 0 255
0.00775549 0.00495881 -0.000242666 0.705186 -0.00795558 0.708978 255 0 0
0.00275553 0.00310053 0.000615408 0.282643 0.177019 0.94275 255 0 0
-0.000994987 0.00208435 0.000663635 0.384666 -0.162563 0.908628 255 0 0
6.30716e-05 0.001338 0.000881541 -0.421653 0.562115 0.711502 255 0 0
-0.00271101 0.00105283 0.00144787 0.169251 0.589409 0.789906 255 0 0
-0.0078933 -0.0072593 0.000202152 -0.448581 0.511866 0.732644 0 0 255
-0.00315836 0.00104816 0.00152467 0.111561 0.583315 0.804548 255 0 0
-0.00392557 0.00104019 0.00165553 0.152369 0.59036 0.792628 255 0 0
-0.0042795 -0.0048501 -3.29544e-05 0.0851029 -0.445968 0.890994 0 0 255
-0.00175951 0.00202792 0.000795342 0.176395 0.0687129 0.981918 255 0 0
0.0025043 0.0068155 0.000512773 -0.553842 0.434499 0.710261 0 0 255
-0.0077031 -0.0074495 0.000388596 0.346342 -0.346885 -0.871618 0 0 255
0.00294739 0.00471546 0.000890473 0.704908 0.0328813 0.708536 255 0 0
-0.00421694 0.00103504 0.00178052 0.299748 0.605819 0.736977 255 0 0
-0.0052939 -0.0045965 -7.95668e-05 -0.255061 -0.230488 0.939052 0 0 255
0.000336389 0.00165628 0.000895028 -0.56306 0.290562 0.773651 255 0 0
-0.00478162 0.00101878 0.00224555 0.564691 0.451015 0.691165 255 0 0
-0.00262062 0.00233318 0.00104592 0.299737 -0.416042 0.858526 255 0 0
0.0015533 0.0054207 0.000671573 0.778253 -0.48499 -0.398883 0 0 255
-0.00369718 0.00629795 0.00193533 0.231549 -0.112058 0.966348 255 0 0
-0.00493749 0.00101447 0.00236773 0.645349 0.35028 0.678843 255 0 0
-0.00274126 0.00521678 0.00222895 0.509737 0.588354 0.6277 255 0 0
0.000215139 0.00103138 0.00105314 -0.116688 0.0752522 0.990314 128 0 128
0.0019971 0.0040259 0.00100735 0.398422 0.367689 0.840276 0 0 255
-0.00390944 0.00358277 0.00146223 0.748097 0.165018 -0.642744 255 0 0
5.912e-05 0.00101671 0.00102845 -0.170229 0.0901949 0.981268 255 0 0
-2.26562e-05 0.00103135 0.00100828 -0.158351 0.146956 0.976386 128 0 128
